ply
format ascii 1.0
comment VCGLIB generated
element vertex 791
property float x
property float y
property float z
property uchar red
property uchar green
property uchar blue
property uchar alpha
element face 0
property list uchar int vertex_indices
end_header
647715 3964388 178.08 128 125 123 255 
647552.4 3964395 103.74 78 74 73 255 
647839.1 3964445 167.32 76 82 71 255 
647739.8 3964507 208.68 96 91 87 255 
647712.9 3964496 190.14 87 88 81 255 
647758.2 3964442 200.79 123 116 113 255 
647902.2 3964420 136.04 82 79 76 255 
647910.1 3964546 151.48 55 59 59 255 
647759.9 3964459 206.4 88 88 85 255 
647778.1 3964552 208.33 83 74 75 255 
647648.4 3964462 146.63 51 56 51 255 
647813.4 3964576 199.22 84 78 79 255 
647853.6 3964436 162.04 116 105 100 255 
647915.8 3964578 149.01 79 73 70 255 
647724.1 3964474 193.05 91 88 86 255 
647789.8 3964419 190.56 81 81 76 255 
647682.9 3964455 161.25 75 74 71 255 
647676.2 3964432 153.39 97 91 90 255 
647847.7 3964508 176.78 94 89 89 255 
647928.6 3964438 124.57 72 76 73 255 
647900.5 3964559 155.28 66 59 62 255 
647795.4 3964516 197 85 81 81 255 
647659.8 3964424 143.01 61 67 61 255 
647658.6 3964484 152.55 78 74 76 255 
647839.2 3964681 201.42 68 68 66 255 
647857.9 3964617 185.45 80 78 80 255 
647890.2 3964508 166.86 111 104 98 255 
647815.8 3964449 179.66 103 96 95 255 
647844.8 3964612 193.46 80 77 75 255 
647954.7 3964390 115.8 74 73 76 255 
648026.1 3964520 115.72 89 83 82 255 
647941.4 3964565 142.86 66 68 64 255 
647948.8 3964758 173.97 67 65 62 255 
648068.5 3964730 155.98 77 79 74 255 
648012.8 3964468 118.07 84 79 80 255 
647979.8 3964510 134.2 108 100 96 255 
648070 3964798 178.1 83 83 81 255 
647942.6 3964664 162.23 66 68 65 255 
648008.4 3964596 134.76 84 78 78 255 
648060.6 3964851 168.61 41 47 43 255 
647966 3964430 114.16 66 69 65 255 
648011.6 3964625 125.62 68 66 64 255 
647946.8 3964777 182.3 74 74 68 255 
647955.9 3964661 157.09 68 69 67 255 
647997.4 3964525 129.22 116 108 104 255 
648032.6 3964508 110.52 109 102 105 255 
647952.2 3964627 148.49 96 91 93 255 
647978.4 3964708 154.44 106 100 100 255 
648028.9 3964607 123.64 38 48 44 255 
648387.6 3964482 176.58 101 90 89 255 
648300.4 3964494 109.77 72 68 70 255 
648496.7 3964473 237.6 43 55 42 255 
648462.1 3964608 160.08 63 75 58 255 
648191.1 3964417 53.41 103 91 90 255 
648173.9 3964528 78.32 58 50 50 255 
648158.1 3964656 107.63 73 73 68 255 
648152.9 3964854 154.92 81 74 76 255 
648090.1 3964708 147.84 80 74 75 255 
648324.3 3964777 96.51 69 66 66 255 
648361 3964608 150.75 46 56 49 255 
648301.6 3964418 123.46 121 114 113 255 
648461.9 3964477 237.46 53 64 49 255 
648409.3 3964518 192.27 56 57 54 255 
648385.2 3964616 146.46 70 72 61 255 
648324.5 3964630 140.28 32 41 39 255 
648326.4 3964708 107.63 39 46 45 255 
648203.6 3964664 97.57 103 93 95 255 
648184.8 3964779 129.77 87 80 81 255 
648286.4 3964419 108.79 101 99 98 255 
648117.4 3964440 81.45 60 70 56 255 
648096.5 3964804 174.12 31 39 40 255 
648271.5 3964780 124.57 139 129 129 255 
648089.8 3964462 89.82 84 82 78 255 
648368.9 3964678 125.69 47 52 46 255 
648425.9 3964630 148.22 64 74 60 255 
648481 3964580 175.1 56 51 52 255 
648502.6 3964486 218.16 61 74 56 255 
648185.2 3964475 66.7 88 86 81 255 
648087.6 3964528 96.38 87 82 82 255 
648218.6 3964765 112.59 89 85 84 255 
648182.3 3964574 73.08 97 90 85 255 
648334.4 3964657 130.76 84 71 70 255 
648256.7 3964456 97.17 60 61 58 255 
648371.8 3964502 162.71 104 90 87 255 
648369.1 3964408 180.06 104 97 93 255 
648478.2 3964446 258.53 53 63 53 255 
648443.5 3964580 160.06 60 70 52 255 
648181.7 3964436 66.85 57 66 54 255 
648243.9 3964634 80.07 72 61 59 255 
648179.6 3964707 121.62 79 77 76 255 
648135.7 3964885 161.43 42 56 48 255 
648147.2 3964768 144.43 70 71 70 255 
648095.2 3964492 87.89 80 87 67 255 
648225.8 3964499 86.51 69 78 69 255 
648453.7 3964577 173.04 54 66 53 255 
648479.9 3964467 236.79 57 60 58 255 
648378.7 3964493 168.58 100 91 87 255 
648104.4 3964742 152.92 90 86 84 255 
648454.7 3964471 234.4 82 81 78 255 
648176.1 3964922 161.87 81 81 83 255 
648110.4 3964898 157.78 83 73 75 255 
648105 3964906 160.77 77 73 70 255 
648503.8 3964570 187.98 42 41 42 255 
648541.2 3964450 262.08 55 62 55 255 
648507.4 3964436 257.79 36 50 39 255 
648532.5 3964518 219.08 48 59 51 255 
648549.4 3964469 248.65 34 43 35 255 
648513 3964466 232.31 35 46 43 255 
648537.2 3964491 225.35 54 65 53 255 
648560.4 3964504 229.7 45 53 48 255 
648559.6 3964485 237.73 56 64 55 255 
648540.5 3964517 224.33 47 61 46 255 
648610.8 3964479 250.43 69 60 57 255 
648588.8 3964419 274.61 47 52 50 255 
648593.6 3964417 276.06 47 51 50 255 
648628.5 3964413 289.25 31 43 38 255 
648587 3964408 293.6 44 54 43 255 
647363 3964191 10.87 74 84 73 255 
647371.8 3964059 -0.43 73 88 97 255 
647360.4 3964144 0.08 95 101 111 255 
647328.1 3964154 0.66 60 61 69 255 
647375.2 3964132 0.06 107 110 120 255 
647582.9 3963884 -0.44 61 83 93 255 
647900.8 3963736 -0.39 66 78 85 255 
647896.6 3963751 -0.25 69 86 93 255 
647910.8 3963830 -0.32 85 96 104 255 
647858.5 3963796 0.23 59 78 87 255 
647847.8 3963817 -0.06 62 80 88 255 
647830.2 3963861 -0.07 70 85 91 255 
647748.5 3963873 0.07 54 61 69 255 
647628.2 3963880 0.32 54 76 84 255 
647438.1 3964118 13.64 129 121 122 255 
647575.6 3964092 74.17 64 73 63 255 
647481.6 3964109 23.36 75 74 75 255 
647383.4 3964189 10.58 81 95 75 255 
647524.2 3964254 52.72 111 105 106 255 
647548.8 3964162 59.74 127 114 110 255 
647521.9 3964055 33.31 77 90 75 255 
647578.1 3964302 115.11 79 72 72 255 
647396.9 3964211 11.19 79 88 70 255 
647443.2 3964216 13.93 68 68 65 255 
647464.4 3964139 17.29 58 55 60 255 
647573.5 3964070 60.36 94 99 88 255 
647416.2 3964182 15.65 70 64 57 255 
647480.8 3964075 33.93 131 127 132 255 
647513.4 3964035 22.19 102 96 94 255 
647440.6 3964200 17.1 63 62 60 255 
647532.9 3964304 78.5 70 73 68 255 
647549.9 3964223 72.12 85 82 83 255 
647536.2 3964057 43.27 103 105 103 255 
647530.1 3964174 50.65 55 54 55 255 
647468.4 3964234 23.47 66 68 64 255 
647512.5 3964344 79.23 108 95 90 255 
647515.6 3964241 45.33 98 94 95 255 
647559.9 3964164 67.95 128 117 114 255 
647577.6 3963922 -0.29 81 98 106 255 
647544.9 3963997 9.4 89 91 88 255 
647562.6 3963993 13.06 112 115 108 255 
647571.2 3964062 53.48 84 88 80 255 
647579.1 3964130 81.29 93 94 91 255 
647546.9 3964108 56.43 130 122 124 255 
647540.4 3964149 52.96 109 103 103 255 
647504 3964084 35.13 93 83 81 255 
647515.8 3964164 40.02 91 87 86 255 
647513.2 3964238 44.32 72 71 70 255 
647528.1 3964178 51.48 96 85 87 255 
647545 3964167 59.51 105 94 91 255 
647516.2 3964073 32.82 147 142 148 255 
647565.2 3964190 71.08 89 86 86 255 
647578 3964230 85.53 83 84 81 255 
647576.1 3964228 85.45 98 92 95 255 
647543.9 3964123 55.63 98 92 90 255 
647513.1 3964014 2.57 76 81 83 255 
647549.1 3964114 58.78 105 99 93 255 
647565.3 3964123 71.41 100 96 94 255 
647546.3 3964006 11.9 147 138 130 255 
647565.8 3964002 20.26 86 81 84 255 
647495.8 3964048 25.42 114 110 109 255 
647479.7 3964060 29.07 83 80 76 255 
647460.3 3964055 19.57 107 109 104 255 
647463.9 3964108 23.82 78 77 78 255 
647474.2 3964181 25.58 88 92 83 255 
647434.4 3964116 9.05 121 115 118 255 
647449.6 3964196 15.49 75 79 71 255 
647419.9 3964145 16.08 115 106 110 255 
647424.4 3964187 13.34 64 62 54 255 
647403.5 3964162 13.95 70 76 67 255 
647401.1 3964192 10.57 80 94 77 255 
647420.2 3964261 20.44 54 53 54 255 
647404.9 3964192 10.61 74 87 68 255 
647448.2 3964266 25.27 84 84 79 255 
647403.4 3964148 12.24 76 69 70 255 
647469 3964286 35.51 84 84 82 255 
647442.3 3964177 17.99 86 79 81 255 
647490.6 3964204 35.08 82 84 77 255 
647488.8 3964067 34.73 89 87 85 255 
647664.6 3963990 20.78 112 106 111 255 
647594.1 3964349 122.89 74 74 71 255 
647635.6 3964213 115.71 60 65 58 255 
647733.3 3964213 93.66 86 84 85 255 
647656.8 3964053 74.63 91 92 89 255 
647758.1 3964081 82.17 76 67 69 255 
647758.5 3963990 45.33 119 104 97 255 
647923.2 3964039 17.25 63 66 72 255 
647870.4 3963996 11.08 101 98 102 255 
647910.2 3964176 54.87 70 66 68 255 
647870.2 3964215 69.73 55 59 57 255 
647689.6 3964059 91.86 103 97 98 255 
647723.2 3964161 99.26 124 119 122 255 
647742.9 3964250 100.83 68 74 67 255 
647729.7 3964306 138.78 92 89 88 255 
647606 3964260 100.96 91 90 92 255 
647680.1 3964356 156.85 97 92 88 255 
647736.7 3964316 139.96 95 92 89 255 
647705.6 3964211 107.61 73 70 71 255 
647904.4 3964370 139.84 96 93 88 255 
647837.8 3964242 80.89 72 74 70 255 
647713.3 3964052 96.91 99 104 92 255 
647744.7 3964009 58.15 97 83 79 255 
647927.5 3964094 24.29 76 73 77 255 
647906.4 3964015 20.62 143 144 152 255 
647926.8 3964216 68.57 82 81 79 255 
647916.2 3964318 138.33 81 89 78 255 
647735.5 3964194 90.04 91 88 89 255 
647740.6 3964311 133.51 91 87 88 255 
647599.9 3964311 125.94 81 82 78 255 
647637.2 3964043 63.09 90 92 86 255 
647616.1 3964014 36.76 70 73 66 255 
647616.2 3964233 98.17 83 82 82 255 
647620.5 3964125 115.43 137 126 124 255 
647617.4 3964032 49.2 82 82 82 255 
647737.9 3964084 90.1 91 85 88 255 
647872.9 3964131 49.41 83 82 79 255 
647869.6 3964020 18.45 64 67 68 255 
647871.4 3963944 23.06 114 106 106 255 
647863.3 3964092 42.68 79 79 77 255 
647691.8 3963980 17.24 104 96 97 255 
647775.6 3964149 80.96 72 71 70 255 
647911.5 3964373 136.11 116 109 109 255 
647798.1 3964300 112.46 145 137 138 255 
647628 3964164 130.56 113 108 106 255 
647675.9 3964318 140.26 88 81 83 255 
647598.8 3964300 120.71 89 87 85 255 
647748.9 3964355 161.73 109 106 102 255 
647784.6 3964315 130.98 88 85 84 255 
647889.5 3964370 146.9 64 69 63 255 
647830.9 3964248 83.57 78 75 79 255 
647834.9 3964198 72.43 79 82 78 255 
647732.4 3964018 56.29 116 97 89 255 
647901.4 3964099 37.44 60 65 63 255 
647946.7 3963928 47.32 123 115 114 255 
647853.6 3964093 44.73 86 82 86 255 
647932.4 3964306 130.26 125 122 121 255 
647784.4 3964224 86.93 101 99 99 255 
647687.8 3964210 128.05 40 49 44 255 
647615 3964262 104.81 92 87 85 255 
647828.6 3964364 165.86 100 95 92 255 
647920.4 3963918 32.19 109 105 107 255 
647855.6 3963908 0.74 87 91 99 255 
647860.9 3963969 11.49 74 73 74 255 
647830.7 3963971 6.51 97 91 89 255 
647816 3963981 20.79 93 85 84 255 
647775 3963965 34.69 85 97 85 255 
647761.1 3963983 43.17 83 86 79 255 
647664 3963899 -0.7 57 76 87 255 
647660.6 3963930 -0.65 70 87 96 255 
647667.7 3963985 18.15 109 103 106 255 
647591.1 3963910 -0.28 59 64 72 255 
647590.8 3963970 4.24 19 23 30 255 
647647.8 3963990 22.79 114 116 113 255 
647690.8 3964000 37.6 144 126 117 255 
647703.9 3963936 -0.26 81 97 105 255 
647755.8 3963993 44.87 124 111 106 255 
647752.6 3963906 0.13 60 73 82 255 
647797.4 3963919 -0.05 73 83 90 255 
647884.3 3963986 21.89 62 66 64 255 
647862.8 3963919 3.32 70 76 80 255 
647918 3963953 48.2 69 76 73 255 
647933.8 3963915 36.01 113 111 114 255 
647754.8 3964020 71.21 69 70 70 255 
647726.4 3964042 87.52 77 81 72 255 
647694.3 3964064 99.13 92 92 88 255 
647637.9 3964017 43.92 42 53 46 255 
647639.7 3964076 88.8 84 81 85 255 
647593.4 3964015 30.83 122 111 108 255 
647616.4 3964105 96.87 125 113 108 255 
647589 3964107 86.66 84 83 78 255 
647590.1 3964258 93.02 77 78 74 255 
647589.1 3964256 92.89 76 77 68 255 
647604.8 3964247 95.44 74 71 71 255 
647625.9 3964256 106.06 60 64 61 255 
647624.2 3964218 107.39 107 101 103 255 
647638.8 3964238 109.05 94 91 90 255 
647627.5 3964190 117.88 106 100 99 255 
647644.2 3964208 130.94 112 105 104 255 
647597.4 3964034 43.1 80 86 81 255 
647642.8 3964138 138.77 121 109 103 255 
647687.9 3964218 124.27 59 64 61 255 
647693.3 3964194 120.47 43 51 47 255 
647682.5 3964129 126.03 83 78 78 255 
647726.2 3964207 91.74 90 86 88 255 
647742.6 3964232 96.2 100 97 100 255 
647680 3964077 101.85 109 96 94 255 
647729 3964181 96.8 125 116 116 255 
647730.2 3964170 96.7 88 84 85 255 
647726.4 3964150 98.69 130 121 122 255 
647689.9 3964050 87.47 77 76 76 255 
647720.8 3964102 96.12 81 84 80 255 
647783.7 3964217 86.42 88 86 88 255 
647761.8 3964133 79.87 88 83 81 255 
647737.1 3964062 92.58 113 111 111 255 
647787.8 3964131 68.5 108 97 98 255 
647846.2 3964196 70.81 59 61 58 255 
647786.6 3964078 69.9 57 54 52 255 
647858.9 3964179 69.72 78 78 79 255 
647789.9 3964060 72.07 66 69 63 255 
647779.1 3964038 75.8 57 61 58 255 
647770.9 3964023 72.55 81 86 81 255 
647844.2 3964135 55.39 80 81 78 255 
647789.7 3964031 66.9 89 84 88 255 
647866 3964126 47.07 59 58 59 255 
647912.7 3964162 48.38 72 69 69 255 
647870.8 3964064 41.91 70 72 73 255 
647927.2 3964099 29.74 52 65 55 255 
647871 3964006 8.68 67 70 74 255 
647901.6 3964026 19.69 76 73 73 255 
647939.9 3964014 37.92 73 79 72 255 
647951.4 3963650 -0.26 58 77 86 255 
647950.2 3963888 21.45 127 124 128 255 
648026.3 3963832 36.15 123 115 115 255 
648020.9 3963854 39.05 123 115 115 255 
647975.1 3963867 14.71 116 113 116 255 
648049.1 3963702 -0.36 78 93 101 255 
648042.9 3963748 0.27 79 84 93 255 
648049.2 3963716 -0.03 89 101 108 255 
647993.2 3963747 -0.25 70 83 91 255 
648079.1 3963788 44.62 94 98 92 255 
648071 3963801 49.65 90 91 88 255 
648018.7 3963769 0.53 72 77 84 255 
648003.7 3963786 1.42 56 60 67 255 
648016.6 3963824 24.97 119 114 114 255 
648007.3 3963886 49.73 119 103 99 255 
648055.5 3963830 55.7 86 97 86 255 
648032.5 3963754 0.68 92 100 109 255 
647996.8 3963756 0.01 82 94 103 255 
647998.6 3963828 4.44 130 127 130 255 
647979.3 3963860 10.36 131 122 121 255 
647952.7 3963862 1.6 84 87 91 255 
648139.9 3963880 117.26 84 84 81 255 
648124.8 3963714 5.02 109 107 101 255 
648295.9 3963719 85.32 85 85 86 255 
648504.8 3963870 230.07 74 71 72 255 
648397.7 3963852 200.35 83 79 77 255 
648228.6 3963772 104.4 86 87 85 255 
648130.4 3963796 72.01 66 67 68 255 
648195.9 3963852 119.24 112 104 103 255 
648226.8 3963764 99.42 74 78 71 255 
648358.9 3963805 155.5 84 83 84 255 
648500.4 3963864 228.71 59 63 55 255 
648490.5 3963768 185.12 84 85 87 255 
648422.6 3963854 204.59 74 71 71 255 
648189.8 3963733 64.05 100 106 95 255 
648485.2 3963878 225.37 107 97 97 255 
648095.2 3963774 44.26 81 85 78 255 
648244.6 3963802 115.43 62 65 61 255 
648482.6 3963734 174.02 155 147 148 255 
648469.8 3963863 212.35 84 84 76 255 
648278 3963749 94.16 77 72 75 255 
648286 3963876 161.67 104 94 90 255 
648131.6 3963861 105.01 78 82 79 255 
648150.1 3963761 58.99 71 70 70 255 
648310.8 3963824 144.04 80 79 80 255 
648417.9 3963841 198.34 83 85 83 255 
648408.1 3963715 126.42 74 70 72 255 
648506.8 3963849 213.43 71 71 63 255 
648349.9 3963804 152.22 96 93 92 255 
648169.8 3963759 69.2 73 77 72 255 
648491.2 3963812 193.37 80 76 75 255 
648200.4 3963725 62.04 94 102 91 255 
648151.3 3963712 26.85 109 108 111 255 
648106.1 3963707 0.95 77 81 85 255 
648096.3 3963746 17.9 119 114 115 255 
648148.8 3963721 33.4 93 91 88 255 
648146.1 3963706 18.74 119 115 115 255 
648168.1 3963702 23.26 118 110 109 255 
648199 3963700 36.38 97 96 90 255 
648257.7 3963706 72.73 82 84 79 255 
648308.5 3963710 87.05 53 57 56 255 
648373.1 3963720 122.57 89 86 86 255 
648421.4 3963718 136.39 67 68 59 255 
648435.8 3963706 147.86 103 97 98 255 
648489.1 3963728 174.76 167 158 158 255 
648134.6 3963766 53.45 82 83 75 255 
648088.1 3963760 30.81 99 96 95 255 
648091.1 3963786 49.15 91 91 94 255 
648108.1 3963861 100.15 84 85 79 255 
648108.9 3963839 87.02 78 79 80 255 
648163.9 3963880 121.12 94 92 89 255 
648106.8 3963774 47.23 80 84 78 255 
648160.8 3963826 94.67 89 85 83 255 
648147.4 3963794 75.2 74 78 73 255 
648189.9 3963831 108.95 88 92 90 255 
648250.2 3963885 155.55 106 103 101 255 
648207.6 3963808 114.15 86 84 84 255 
648238 3963821 130.56 87 87 86 255 
648300.9 3963878 169.15 104 92 88 255 
648315.4 3963884 179.24 107 99 96 255 
648320.9 3963886 182.37 90 87 84 255 
648242.4 3963804 117.89 82 79 80 255 
648221.8 3963781 106.45 92 89 87 255 
648297.1 3963850 157.37 87 89 88 255 
648288.1 3963832 143.35 97 91 89 255 
648285.2 3963816 131.99 83 80 77 255 
648257.5 3963774 102.75 64 68 61 255 
648342.8 3963838 163.85 179 172 176 255 
648312.2 3963798 130.68 94 89 92 255 
648309.6 3963783 119.2 86 83 84 255 
648381.1 3963832 177.94 97 92 91 255 
648322.8 3963757 114.8 82 76 77 255 
648368.4 3963775 139.81 116 108 106 255 
648399 3963773 153.91 90 86 85 255 
648446.1 3963774 171.46 174 165 166 255 
647980.1 3964049 60.09 76 79 75 255 
648015.8 3963898 59.62 140 118 110 255 
648036.1 3964032 102.19 76 78 74 255 
647999.1 3964144 28.13 51 48 52 255 
647951.9 3964225 67.27 80 81 74 255 
648019.5 3964323 106.24 122 122 122 255 
648040.5 3964213 35.51 34 44 42 255 
647968.6 3964001 56.92 77 71 70 255 
648075.7 3963954 122.31 81 76 77 255 
648031.4 3964057 90.15 59 63 60 255 
648010.9 3964178 28.83 60 60 63 255 
647983.7 3964274 96.32 81 84 82 255 
648042.4 3964324 107.22 44 56 47 255 
647949.2 3964361 123.34 62 57 57 255 
647982.6 3963898 45.72 133 118 115 255 
647959.4 3963914 45.08 76 84 76 255 
647974.6 3964086 56.41 94 91 89 255 
647946.1 3964190 53.16 123 110 106 255 
648001.1 3964331 105.33 150 143 147 255 
648059.4 3964247 40.07 70 62 64 255 
647947.9 3963998 45.59 79 73 74 255 
648007.4 3963917 74.51 110 101 99 255 
647972.7 3963965 68.44 58 66 63 255 
648001 3964156 34.22 81 75 78 255 
647988.3 3964268 89.63 100 95 97 255 
647995.4 3964301 105.75 81 74 74 255 
647942.2 3964305 127.71 128 128 129 255 
648056.6 3963998 105.46 89 81 79 255 
648031 3963932 96.43 77 73 76 255 
648070.2 3963909 98.14 74 72 75 255 
648002.1 3964064 74.49 97 94 96 255 
648022.1 3964048 86.3 65 67 65 255 
648044.5 3964035 108.29 89 87 88 255 
648070.9 3964017 123.65 83 78 74 255 
647962.8 3963957 68.04 48 59 53 255 
647979.9 3963917 60.88 87 90 82 255 
647950.4 3964108 34.64 96 92 90 255 
647966.4 3964104 46.06 100 95 92 255 
647988.7 3964088 68.73 90 88 87 255 
647964.4 3964017 50.73 68 67 63 255 
648470.1 3963890 223.53 115 108 100 255 
648318.8 3963984 232.44 80 81 76 255 
648262.2 3964053 191.17 47 56 50 255 
648126.9 3963998 160.36 67 67 65 255 
648146.3 3964183 86.44 54 50 51 255 
648159.6 3964250 73.17 32 46 41 255 
648209.5 3964155 118.66 81 76 73 255 
648148.6 3963993 169.4 78 75 75 255 
648304.2 3964073 199.29 66 71 65 255 
648260.1 3963921 179 83 81 80 255 
648385.9 3963911 222.56 112 104 96 255 
648428.4 3963940 231.57 116 109 100 255 
648300.8 3963902 186.77 86 86 79 255 
648363.7 3964060 244.74 55 56 53 255 
648454.9 3964240 262.86 96 90 96 255 
648312.6 3964132 182.85 64 58 58 255 
648199.8 3964055 161.18 100 94 97 255 
648251.2 3964178 124.12 145 137 140 255 
648232.5 3964224 105.47 51 59 53 255 
648287.6 3964366 110.04 162 152 153 255 
648210.8 3964373 58.85 24 37 37 255 
648169.8 3964342 53.64 90 84 86 255 
648192.9 3964263 83.35 40 52 44 255 
648265.9 3964272 117.63 81 78 73 255 
648197.2 3964133 123.58 55 64 56 255 
648334.7 3964240 169.69 62 62 59 255 
648289.7 3964142 162.82 69 66 67 255 
648400.5 3964225 218.28 83 79 79 255 
648382.9 3964152 217.58 87 82 82 255 
648444.2 3964172 272.61 67 70 62 255 
648483.4 3964144 304.46 73 73 71 255 
648491.6 3964041 284.83 115 108 98 255 
648509.1 3963993 264.92 119 111 101 255 
648331.4 3963948 228.67 91 83 77 255 
648430.5 3964167 263.49 76 79 69 255 
648274.1 3964073 183.8 38 50 46 255 
648449.1 3964348 232.75 52 57 54 255 
648373.5 3964339 174.35 50 62 50 255 
648259.4 3964297 100.85 50 52 50 255 
648228.1 3964376 69.65 90 82 78 255 
648325.8 3964312 137.92 53 66 54 255 
648463.8 3964324 244.27 116 109 100 255 
648500.8 3964202 293.98 77 76 69 255 
648315.2 3963894 187.88 111 102 96 255 
648303.4 3964046 214.12 64 72 64 255 
648182.3 3964016 174.62 78 75 74 255 
648143.7 3964106 115.71 69 60 60 255 
648101.4 3964262 47.23 64 74 60 255 
648088.8 3964078 121.69 55 62 55 255 
648140.3 3964019 160.62 70 68 65 255 
648294.8 3964094 185.83 55 64 58 255 
648237.5 3963940 178 104 98 94 255 
648345.9 3963931 225.61 100 92 88 255 
648465.8 3963916 229.99 115 110 100 255 
648364.9 3963946 237.64 103 98 89 255 
648381.9 3964054 257.39 90 88 75 255 
648374.6 3964122 227.2 64 72 62 255 
648228.1 3964015 199.2 107 101 102 255 
648243 3964096 153.55 84 79 80 255 
648248.5 3964166 126.63 66 63 59 255 
648278.9 3964268 124.79 125 105 101 255 
648115.1 3964150 88.22 77 74 74 255 
648127.4 3964270 35.64 53 62 65 255 
648126.3 3964292 48.65 48 62 50 255 
648147.9 3964191 84.58 64 58 58 255 
648160 3964128 107.73 87 79 80 255 
648200.1 3964110 130.04 179 171 171 255 
648465.6 3964384 254.8 72 70 64 255 
648442.6 3964303 235.87 63 67 62 255 
648307.5 3964094 193.77 49 58 54 255 
648448.4 3964208 256.77 76 83 77 255 
648461.8 3964169 287.47 89 90 87 255 
648487.6 3964123 309.55 93 86 80 255 
648456.3 3963943 236.05 116 110 100 255 
648420.5 3963967 248.17 110 102 97 255 
648429.8 3964107 271.13 68 64 62 255 
648492.2 3964274 275.65 66 67 67 255 
648281.1 3964122 163.63 64 63 62 255 
648252.7 3964164 133.67 92 87 87 255 
648376.9 3964384 181.04 101 88 87 255 
648201.7 3964284 79.96 50 58 56 255 
648085.8 3964372 71.69 64 70 63 255 
648440.9 3964384 243.89 55 66 53 255 
648421.7 3964198 248.9 64 77 58 255 
648104.4 3963959 137.78 87 79 78 255 
648124.3 3963926 138.9 134 117 112 255 
648185.6 3963974 178.31 103 96 91 255 
648166.4 3963940 148.17 161 151 151 255 
648194.8 3963975 181.49 84 80 79 255 
648187.1 3963939 152.23 73 71 69 255 
648183.4 3963894 132.06 126 114 109 255 
648246.8 3963936 179.72 118 107 104 255 
648255.3 3963910 172.65 88 89 87 255 
648304.3 3963896 183.46 111 104 100 255 
648119.6 3964033 142.72 119 109 104 255 
648495.1 3964388 282.31 84 78 80 255 
648582.6 3963706 198.4 86 85 85 255 
648582.3 3963838 244.56 115 109 112 255 
648532.6 3963852 223.3 76 78 74 255 
648580.6 3963734 212.85 93 90 86 255 
648574.7 3963822 235.48 104 98 88 255 
648537.7 3963874 231.04 78 72 76 255 
648519.9 3963715 186.49 86 87 87 255 
648616.4 3963712 219.45 114 107 102 255 
648771.1 3963740 244.02 89 81 86 255 
648683 3963754 248.5 107 104 99 255 
648618.8 3963804 243 108 104 93 255 
648608.6 3963761 231.71 93 94 81 255 
648774 3963852 321 106 91 86 255 
648865.7 3963841 310.82 114 103 97 255 
648892.2 3963836 318.12 111 97 93 255 
648681.2 3963776 266.06 116 110 103 255 
648845.9 3963821 293.34 100 92 93 255 
648648.8 3963740 243.7 104 100 93 255 
648699.6 3963734 239.48 121 113 102 255 
648757 3963749 252.13 87 79 77 255 
648681.5 3963778 267.44 119 111 103 255 
648632.1 3963866 284.84 120 111 102 255 
648682.3 3963821 283.22 105 98 86 255 
648718.2 3963748 250.13 116 109 101 255 
648864.1 3963806 289.37 72 72 72 255 
648802.7 3963764 253.53 100 92 92 255 
648628.7 3963752 243.19 104 100 90 255 
648904.9 3963834 324.13 107 101 98 255 
648562.5 3964118 330.48 112 109 102 255 
648510 3964230 291.43 67 68 64 255 
648516.1 3964053 291.75 107 103 94 255 
648569.9 3963899 260.62 120 109 99 255 
648542.8 3964195 303.44 85 82 84 255 
648580.2 3964376 316.66 55 67 53 255 
648562.4 3964146 326.25 72 74 64 255 
648568.4 3964079 318.41 115 109 98 255 
648545.6 3964306 308.62 65 60 59 255 
648568.1 3964160 322.55 63 60 62 255 
648538.7 3963921 258.35 106 98 91 255 
648570.9 3964175 320.53 48 46 46 255 
648515 3964326 291.07 102 89 85 255 
648514.9 3964126 320.56 103 94 87 255 
648737.5 3963942 336.37 121 110 100 255 
648675.9 3964034 332.23 115 111 99 255 
648598.1 3964318 335.15 95 82 76 255 
648698 3964324 341 62 67 55 255 
648709.3 3964273 373.28 59 66 54 255 
648607.6 3964093 339.25 124 111 103 255 
648722.7 3964174 382.15 99 94 81 255 
648631.1 3964002 302.13 110 100 93 255 
648650.4 3963974 306.8 87 88 74 255 
648722.6 3964008 334.3 38 49 39 255 
648860.4 3964124 395.48 89 87 73 255 
648806.2 3964005 369.78 121 110 100 255 
648862.9 3964010 386.96 112 103 93 255 
648832.2 3963899 343.33 110 109 100 255 
648941.9 3963948 393.45 115 108 98 255 
648947.1 3963895 372.62 125 119 111 255 
648932.7 3964040 406.37 99 97 84 255 
648808.7 3964009 370.69 108 104 89 255 
648774.4 3964056 375.24 118 109 102 255 
648833.1 3964202 386.54 90 92 77 255 
648704.3 3964139 376.53 127 116 106 255 
648750.9 3964295 376.29 39 49 38 255 
648692.3 3964352 320.27 23 30 30 255 
648629.3 3964358 332.71 41 51 40 255 
648705.9 3964342 340.64 29 38 31 255 
648732.9 3964308 362.56 33 41 36 255 
648737.9 3964266 388.78 21 29 26 255 
648783.8 3964142 384.33 103 102 87 255 
648806.1 3964094 389.2 112 105 95 255 
648900.1 3964118 398.99 104 99 87 255 
648850.3 3964013 384 104 103 90 255 
648837.4 3963944 370.89 125 114 107 255 
648984.6 3964062 422.45 109 100 89 255 
648932.8 3963916 379.43 126 121 112 255 
648991.8 3964077 427.76 104 100 88 255 
648761.6 3964228 381.95 110 102 93 255 
648640.4 3964386 311.5 42 45 46 255 
648664.4 3964313 350.47 28 30 34 255 
648780.1 3964212 383.22 106 98 87 255 
648706.2 3963916 316.55 120 110 106 255 
648633.6 3963990 303.34 77 77 67 255 
648651.6 3964363 302.94 58 54 57 255 
648662.4 3964289 356.97 62 75 52 255 
648694.4 3964250 376.95 112 96 87 255 
648718.6 3964216 383.37 115 105 95 255 
648703.6 3964148 379.15 120 109 100 255 
648796.9 3964201 386.96 97 93 80 255 
648737.8 3964084 372.67 118 110 99 255 
648767.4 3964066 375.82 116 108 101 255 
648827.8 3964082 390.71 116 108 98 255 
648830.8 3964029 382.31 107 103 93 255 
648840 3963980 378.52 116 109 96 255 
648887.2 3963963 383.92 141 135 130 255 
648978.6 3963986 414.33 104 102 93 255 
649032.8 3964013 448.09 114 110 98 255 
648809.5 3963900 336.35 119 111 104 255 
648699.1 3963890 304.26 113 101 94 255 
648759.9 3964053 371.12 115 108 99 255 
648792.2 3964166 386.09 100 99 87 255 
648679 3964125 362.37 132 117 106 255 
648611.9 3964155 350.05 118 113 103 255 
648656.7 3964344 322.06 30 42 35 255 
648675.9 3964362 301.92 68 76 60 255 
648583.9 3964185 327.82 95 90 93 255 
648804 3964273 378.51 49 56 44 255 
648750.8 3964128 382.27 122 110 101 255 
648715.6 3963995 333.59 108 103 93 255 
648884.3 3964130 396.8 112 103 89 255 
648947.3 3964004 407.82 106 103 89 255 
648949.4 3963913 384.54 129 124 118 255 
649051.9 3963998 435.43 139 124 118 255 
648968.1 3964085 416.24 115 106 95 255 
648612 3964352 323.88 63 62 61 255 
648741.8 3964241 384.23 39 42 38 255 
648844.1 3964168 388.86 98 97 81 255 
648661.4 3964399 289.32 67 66 67 255 
648384.9 3963354 -0.44 58 79 89 255 
648052.1 3963589 -0.27 61 82 89 255 
648012.4 3963616 -0.29 58 79 87 255 
647995.8 3963644 0.48 59 78 88 255 
648245.8 3963616 11.45 123 116 111 255 
648373.1 3963591 61.92 101 99 101 255 
648475.1 3963553 88.21 86 85 87 255 
648462.6 3963522 67.79 118 110 102 255 
648427.5 3963628 129.55 97 87 87 255 
648254.4 3963606 6.83 111 106 99 255 
648372.2 3963697 109.99 74 72 73 255 
648372 3963539 31.34 105 103 106 255 
648470.7 3963472 27.82 126 118 115 255 
648509.6 3963698 177.6 159 152 153 255 
648277.8 3963666 54.64 82 84 82 255 
648356.5 3963652 75.5 76 74 75 255 
648425.3 3963569 79.21 91 91 83 255 
648515.2 3963471 62.73 112 105 102 255 
648449.4 3963596 124.94 96 90 90 255 
648359.3 3963637 70.96 71 69 70 255 
648248.3 3963667 41.86 96 88 85 255 
648397.8 3963629 94.8 95 89 89 255 
648418.5 3963514 41.37 109 105 107 255 
648434.7 3963510 50.6 118 115 115 255 
648409.9 3963681 124.95 91 83 84 255 
648512.7 3963440 29.92 120 115 115 255 
648513.6 3963472 63.9 99 94 92 255 
648495.4 3963437 8.37 102 98 100 255 
648403.6 3963390 -0.35 62 78 86 255 
648403.7 3963412 -0.1 68 82 91 255 
648466.8 3963499 50.45 126 115 110 255 
648395.4 3963462 0.47 63 63 67 255 
648383.4 3963487 18.87 94 93 95 255 
648358.1 3963491 24.19 112 111 113 255 
648244.1 3963456 -0.33 65 86 96 255 
648333.1 3963498 -0.88 92 99 107 255 
648401.8 3963458 0.22 76 75 77 255 
648432 3963433 0.2 91 99 109 255 
648489.5 3963495 66.47 121 112 102 255 
648491.8 3963480 52.58 87 88 82 255 
648483.4 3963427 0.96 147 148 158 255 
648436.9 3963510 51.81 120 116 117 255 
648407.9 3963522 42.92 105 106 106 255 
648382.8 3963518 21.59 97 93 86 255 
648374.2 3963542 33.3 89 89 88 255 
648331.2 3963540 4.1 69 75 79 255 
648345.6 3963575 30.27 92 89 88 255 
648337.5 3963580 30.87 126 119 118 255 
648263.2 3963518 -0.19 77 91 100 255 
648349.1 3963607 61.59 128 127 126 255 
648315.4 3963586 22.24 110 106 107 255 
648312.1 3963598 25.67 98 94 95 255 
648309.7 3963618 32.74 111 106 105 255 
648281 3963614 27.61 84 89 80 255 
648298.2 3963659 58.5 75 77 74 255 
648244.4 3963626 20.35 81 77 75 255 
648193.6 3963594 -0.64 85 102 109 255 
648204.4 3963637 1.55 85 88 90 255 
648121.2 3963554 -0.18 61 85 92 255 
648176.6 3963664 0.98 99 104 112 255 
648166.7 3963692 5.67 114 109 109 255 
648123.3 3963692 0.38 76 82 90 255 
648138.8 3963696 3.22 82 83 89 255 
648142.1 3963661 3.9 56 63 69 255 
648177.4 3963640 0.07 78 90 96 255 
648234.2 3963655 30 137 124 113 255 
648297.4 3963680 69.8 95 91 95 255 
648259.2 3963614 16.28 74 70 69 255 
648354 3963677 97.12 85 86 82 255 
648279.5 3963581 1.57 51 55 59 255 
648267.3 3963555 -0.23 127 141 150 255 
648345.8 3963616 59.15 116 106 99 255 
648373.6 3963631 79.36 84 83 86 255 
648349.4 3963593 46.43 112 109 110 255 
648311.6 3963538 0.09 187 194 203 255 
648418 3963630 116.64 91 84 84 255 
648439.9 3963636 142.99 72 72 67 255 
648462.2 3963636 154.45 94 88 90 255 
648476.1 3963628 151.68 83 81 82 255 
648476.4 3963604 130.04 74 75 72 255 
648489.1 3963588 115.26 83 80 81 255 
648475.6 3963541 83.75 97 92 94 255 
648513.3 3963686 183.9 46 56 50 255 
648510.2 3963567 105.29 98 93 92 255 
648509.4 3963504 79.61 72 76 70 255 
648570.9 3963520 113.42 98 87 88 255 
648577.9 3963591 145.78 67 69 66 255 
648565.8 3963608 151.43 72 71 72 255 
648571.6 3963560 126.59 86 86 87 255 
648554.5 3963615 152.84 62 58 55 255 
648553.8 3963538 111.6 100 91 83 255 
648550.2 3963616 152.59 90 86 86 255 
648539.4 3963464 81 133 120 115 255 
648542.5 3963682 180.39 142 142 144 255 
648518.4 3963621 145.94 68 71 66 255 
648554.3 3963643 165.73 67 66 66 255 
648565.9 3963629 161.24 85 84 85 255 
648567 3963598 146.94 77 78 77 255 
648543.6 3963550 111.32 80 76 79 255 
648557.2 3963558 122.18 81 80 80 255 
648568.9 3963555 122.09 63 61 62 255 
648534.4 3963508 93.53 67 71 67 255 
648664 3963674 187.86 141 135 137 255 
648656.8 3963646 172.48 79 76 80 255 
648677.6 3963676 188.79 151 143 147 255 
648660.9 3963609 157.4 61 63 60 255 
648617.2 3963696 207.41 107 105 97 255 
648726.9 3963671 189 84 73 73 255 
648653.1 3963696 206.6 103 100 93 255 
648593.9 3963618 158.32 93 91 91 255 
648583.8 3963588 145.19 83 83 81 255 
648631.9 3963624 162.71 60 68 58 255 
648640.6 3963617 159.09 67 72 65 255 
648653.6 3963610 156.47 66 66 64 255 
648659.2 3963590 150.58 93 79 79 255 